ply 
format ascii 1.0
element vertex 1090
property float x
property float y
property float z
property uchar red
property uchar green
property uchar blue
element face 0
property list uchar uint vertex_indices
end_header
69.000000 96.000000 153.000000 148 103 189
69.000000 96.000000 154.000000 148 103 189
69.000000 96.000000 155.000000 148 103 189
69.000000 97.000000 153.000000 148 103 189
69.000000 97.000000 154.000000 148 103 189
69.000000 97.000000 155.000000 148 103 189
69.000000 98.000000 153.000000 148 103 189
69.000000 98.000000 154.000000 148 103 189
69.000000 98.000000 155.000000 148 103 189
69.000000 99.000000 153.000000 148 103 189
69.000000 99.000000 154.000000 148 103 189
69.000000 99.000000 155.000000 148 103 189
69.000000 100.000000 153.000000 148 103 189
69.000000 100.000000 154.000000 148 103 189
69.000000 100.000000 155.000000 148 103 189
69.000000 101.000000 153.000000 148 103 189
69.000000 101.000000 154.000000 148 103 189
69.000000 101.000000 155.000000 148 103 189
69.000000 102.000000 153.000000 148 103 189
69.000000 102.000000 154.000000 148 103 189
69.000000 102.000000 155.000000 148 103 189
69.000000 103.000000 153.000000 148 103 189
69.000000 103.000000 154.000000 148 103 189
69.000000 103.000000 155.000000 148 103 189
69.000000 104.000000 153.000000 148 103 189
69.000000 104.000000 154.000000 148 103 189
69.000000 104.000000 155.000000 148 103 189
69.000000 105.000000 153.000000 148 103 189
69.000000 105.000000 154.000000 148 103 189
69.000000 105.000000 155.000000 148 103 189
69.000000 106.000000 153.000000 148 103 189
69.000000 106.000000 154.000000 148 103 189
69.000000 106.000000 155.000000 148 103 189
69.000000 107.000000 153.000000 148 103 189
69.000000 107.000000 154.000000 148 103 189
69.000000 107.000000 155.000000 148 103 189
69.000000 108.000000 153.000000 148 103 189
69.000000 108.000000 154.000000 148 103 189
69.000000 108.000000 155.000000 148 103 189
69.000000 109.000000 153.000000 148 103 189
69.000000 109.000000 154.000000 148 103 189
69.000000 109.000000 155.000000 148 103 189
69.000000 110.000000 153.000000 148 103 189
69.000000 110.000000 154.000000 148 103 189
69.000000 110.000000 155.000000 148 103 189
69.000000 111.000000 153.000000 148 103 189
69.000000 111.000000 154.000000 148 103 189
69.000000 111.000000 155.000000 148 103 189
69.000000 112.000000 153.000000 148 103 189
69.000000 112.000000 154.000000 148 103 189
69.000000 112.000000 155.000000 148 103 189
69.000000 113.000000 153.000000 148 103 189
69.000000 113.000000 154.000000 148 103 189
69.000000 113.000000 155.000000 148 103 189
69.000000 114.000000 154.000000 148 103 189
69.000000 114.000000 155.000000 148 103 189
69.000000 115.000000 153.000000 148 103 189
69.000000 115.000000 154.000000 148 103 189
69.000000 115.000000 155.000000 148 103 189
69.000000 116.000000 154.000000 148 103 189
69.000000 116.000000 155.000000 148 103 189
69.000000 117.000000 154.000000 148 103 189
69.000000 117.000000 155.000000 148 103 189
69.000000 118.000000 154.000000 148 103 189
69.000000 118.000000 155.000000 148 103 189
69.000000 119.000000 153.000000 148 103 189
69.000000 119.000000 154.000000 148 103 189
69.000000 119.000000 155.000000 148 103 189
69.000000 120.000000 154.000000 148 103 189
69.000000 120.000000 155.000000 148 103 189
69.000000 121.000000 154.000000 148 103 189
69.000000 121.000000 155.000000 148 103 189
69.000000 122.000000 154.000000 148 103 189
69.000000 122.000000 155.000000 148 103 189
69.000000 123.000000 154.000000 148 103 189
69.000000 123.000000 155.000000 148 103 189
69.000000 124.000000 154.000000 148 103 189
69.000000 124.000000 155.000000 148 103 189
69.000000 125.000000 154.000000 148 103 189
69.000000 125.000000 155.000000 148 103 189
69.000000 126.000000 154.000000 148 103 189
69.000000 126.000000 155.000000 148 103 189
69.000000 127.000000 154.000000 148 103 189
69.000000 127.000000 155.000000 148 103 189
69.000000 128.000000 154.000000 148 103 189
69.000000 128.000000 155.000000 148 103 189
69.000000 129.000000 154.000000 148 103 189
69.000000 129.000000 155.000000 148 103 189
69.000000 130.000000 154.000000 148 103 189
69.000000 130.000000 155.000000 148 103 189
69.000000 131.000000 154.000000 148 103 189
69.000000 131.000000 155.000000 148 103 189
69.000000 132.000000 153.000000 148 103 189
69.000000 132.000000 154.000000 148 103 189
69.000000 132.000000 155.000000 148 103 189
69.000000 133.000000 153.000000 148 103 189
69.000000 133.000000 154.000000 148 103 189
69.000000 133.000000 155.000000 148 103 189
69.000000 134.000000 154.000000 148 103 189
69.000000 134.000000 155.000000 148 103 189
69.000000 135.000000 153.000000 152 223 138
69.000000 135.000000 154.000000 148 103 189
69.000000 135.000000 155.000000 148 103 189
69.000000 136.000000 146.000000 152 223 138
69.000000 136.000000 147.000000 152 223 138
69.000000 136.000000 148.000000 152 223 138
69.000000 136.000000 149.000000 152 223 138
69.000000 136.000000 150.000000 152 223 138
69.000000 136.000000 152.000000 152 223 138
69.000000 136.000000 153.000000 152 223 138
69.000000 136.000000 154.000000 148 103 189
69.000000 136.000000 155.000000 148 103 189
69.000000 137.000000 144.000000 152 223 138
69.000000 137.000000 145.000000 152 223 138
69.000000 137.000000 146.000000 152 223 138
69.000000 137.000000 147.000000 152 223 138
69.000000 137.000000 148.000000 152 223 138
69.000000 137.000000 149.000000 152 223 138
69.000000 137.000000 150.000000 152 223 138
69.000000 137.000000 151.000000 152 223 138
69.000000 137.000000 152.000000 152 223 138
69.000000 137.000000 153.000000 152 223 138
69.000000 137.000000 154.000000 152 223 138
69.000000 137.000000 155.000000 148 103 189
69.000000 138.000000 144.000000 152 223 138
69.000000 138.000000 145.000000 152 223 138
69.000000 138.000000 146.000000 152 223 138
69.000000 138.000000 147.000000 152 223 138
69.000000 138.000000 148.000000 152 223 138
69.000000 138.000000 149.000000 152 223 138
69.000000 138.000000 150.000000 152 223 138
69.000000 138.000000 151.000000 152 223 138
69.000000 138.000000 152.000000 152 223 138
69.000000 138.000000 153.000000 152 223 138
69.000000 138.000000 154.000000 152 223 138
69.000000 138.000000 155.000000 148 103 189
69.000000 139.000000 153.000000 152 223 138
69.000000 139.000000 154.000000 152 223 138
69.000000 139.000000 155.000000 148 103 189
69.000000 140.000000 153.000000 152 223 138
69.000000 140.000000 154.000000 148 103 189
69.000000 140.000000 155.000000 148 103 189
69.000000 141.000000 153.000000 152 223 138
69.000000 141.000000 154.000000 152 223 138
69.000000 141.000000 155.000000 148 103 189
69.000000 142.000000 153.000000 152 223 138
69.000000 142.000000 154.000000 152 223 138
69.000000 142.000000 155.000000 148 103 189
69.000000 143.000000 153.000000 152 223 138
69.000000 143.000000 154.000000 152 223 138
69.000000 143.000000 155.000000 148 103 189
69.000000 144.000000 153.000000 152 223 138
69.000000 144.000000 154.000000 148 103 189
69.000000 144.000000 155.000000 148 103 189
69.000000 145.000000 153.000000 152 223 138
69.000000 145.000000 154.000000 152 223 138
69.000000 145.000000 155.000000 148 103 189
69.000000 146.000000 153.000000 152 223 138
69.000000 146.000000 154.000000 148 103 189
69.000000 146.000000 155.000000 148 103 189
69.000000 147.000000 153.000000 152 223 138
69.000000 147.000000 154.000000 148 103 189
69.000000 147.000000 155.000000 148 103 189
69.000000 148.000000 153.000000 152 223 138
69.000000 148.000000 154.000000 148 103 189
69.000000 148.000000 155.000000 148 103 189
69.000000 149.000000 153.000000 152 223 138
69.000000 149.000000 154.000000 148 103 189
69.000000 149.000000 155.000000 148 103 189
69.000000 150.000000 153.000000 152 223 138
69.000000 150.000000 154.000000 148 103 189
69.000000 150.000000 155.000000 148 103 189
69.000000 151.000000 153.000000 152 223 138
69.000000 151.000000 154.000000 148 103 189
69.000000 151.000000 155.000000 148 103 189
69.000000 152.000000 125.000000 196 156 148
69.000000 152.000000 126.000000 196 156 148
69.000000 152.000000 127.000000 196 156 148
69.000000 152.000000 128.000000 196 156 148
69.000000 152.000000 129.000000 196 156 148
69.000000 152.000000 130.000000 196 156 148
69.000000 152.000000 131.000000 196 156 148
69.000000 152.000000 132.000000 196 156 148
69.000000 152.000000 133.000000 196 156 148
69.000000 152.000000 134.000000 196 156 148
69.000000 152.000000 135.000000 196 156 148
69.000000 152.000000 136.000000 196 156 148
69.000000 152.000000 137.000000 196 156 148
69.000000 152.000000 138.000000 196 156 148
69.000000 152.000000 139.000000 196 156 148
69.000000 152.000000 140.000000 196 156 148
69.000000 152.000000 141.000000 196 156 148
69.000000 152.000000 142.000000 196 156 148
69.000000 152.000000 143.000000 196 156 148
69.000000 152.000000 144.000000 196 156 148
69.000000 152.000000 145.000000 196 156 148
69.000000 152.000000 146.000000 196 156 148
69.000000 152.000000 147.000000 196 156 148
69.000000 152.000000 148.000000 196 156 148
69.000000 152.000000 149.000000 196 156 148
69.000000 152.000000 150.000000 196 156 148
69.000000 152.000000 151.000000 196 156 148
69.000000 152.000000 152.000000 196 156 148
69.000000 152.000000 153.000000 196 156 148
69.000000 152.000000 154.000000 148 103 189
69.000000 152.000000 155.000000 148 103 189
69.000000 153.000000 124.000000 196 156 148
69.000000 153.000000 125.000000 196 156 148
69.000000 153.000000 126.000000 196 156 148
69.000000 153.000000 127.000000 196 156 148
69.000000 153.000000 128.000000 196 156 148
69.000000 153.000000 129.000000 196 156 148
69.000000 153.000000 130.000000 196 156 148
69.000000 153.000000 131.000000 196 156 148
69.000000 153.000000 132.000000 196 156 148
69.000000 153.000000 133.000000 196 156 148
69.000000 153.000000 134.000000 196 156 148
69.000000 153.000000 135.000000 196 156 148
69.000000 153.000000 136.000000 196 156 148
69.000000 153.000000 137.000000 196 156 148
69.000000 153.000000 138.000000 196 156 148
69.000000 153.000000 139.000000 196 156 148
69.000000 153.000000 140.000000 196 156 148
69.000000 153.000000 141.000000 196 156 148
69.000000 153.000000 142.000000 196 156 148
69.000000 153.000000 143.000000 196 156 148
69.000000 153.000000 144.000000 196 156 148
69.000000 153.000000 145.000000 196 156 148
69.000000 153.000000 146.000000 196 156 148
69.000000 153.000000 147.000000 196 156 148
69.000000 153.000000 148.000000 196 156 148
69.000000 153.000000 149.000000 196 156 148
69.000000 153.000000 150.000000 196 156 148
69.000000 153.000000 151.000000 196 156 148
69.000000 153.000000 152.000000 196 156 148
69.000000 153.000000 153.000000 196 156 148
69.000000 153.000000 154.000000 148 103 189
69.000000 153.000000 155.000000 148 103 189
70.000000 70.000000 153.000000 148 103 189
70.000000 71.000000 152.000000 148 103 189
70.000000 71.000000 153.000000 148 103 189
70.000000 71.000000 154.000000 148 103 189
70.000000 72.000000 152.000000 148 103 189
70.000000 72.000000 153.000000 148 103 189
70.000000 72.000000 154.000000 148 103 189
70.000000 73.000000 152.000000 148 103 189
70.000000 73.000000 153.000000 148 103 189
70.000000 73.000000 154.000000 148 103 189
70.000000 74.000000 153.000000 148 103 189
70.000000 74.000000 154.000000 148 103 189
70.000000 75.000000 153.000000 148 103 189
70.000000 75.000000 154.000000 148 103 189
70.000000 76.000000 153.000000 148 103 189
70.000000 76.000000 154.000000 148 103 189
70.000000 77.000000 152.000000 148 103 189
70.000000 77.000000 153.000000 148 103 189
70.000000 77.000000 154.000000 148 103 189
70.000000 78.000000 152.000000 148 103 189
70.000000 78.000000 153.000000 148 103 189
70.000000 78.000000 154.000000 148 103 189
70.000000 79.000000 152.000000 148 103 189
70.000000 79.000000 153.000000 148 103 189
70.000000 79.000000 154.000000 148 103 189
70.000000 80.000000 152.000000 148 103 189
70.000000 80.000000 153.000000 148 103 189
70.000000 80.000000 154.000000 148 103 189
70.000000 81.000000 153.000000 148 103 189
70.000000 81.000000 154.000000 148 103 189
70.000000 82.000000 153.000000 148 103 189
70.000000 82.000000 154.000000 148 103 189
70.000000 83.000000 153.000000 148 103 189
70.000000 83.000000 154.000000 148 103 189
70.000000 84.000000 152.000000 148 103 189
70.000000 84.000000 153.000000 148 103 189
70.000000 84.000000 154.000000 148 103 189
70.000000 85.000000 152.000000 148 103 189
70.000000 85.000000 153.000000 148 103 189
70.000000 85.000000 154.000000 148 103 189
70.000000 86.000000 152.000000 148 103 189
70.000000 86.000000 153.000000 148 103 189
70.000000 86.000000 154.000000 148 103 189
70.000000 87.000000 153.000000 148 103 189
70.000000 87.000000 154.000000 148 103 189
70.000000 88.000000 153.000000 148 103 189
70.000000 88.000000 154.000000 148 103 189
70.000000 89.000000 153.000000 148 103 189
70.000000 89.000000 154.000000 148 103 189
70.000000 90.000000 153.000000 148 103 189
70.000000 90.000000 154.000000 148 103 189
70.000000 91.000000 153.000000 148 103 189
70.000000 91.000000 154.000000 148 103 189
70.000000 92.000000 153.000000 148 103 189
70.000000 92.000000 154.000000 148 103 189
70.000000 93.000000 153.000000 148 103 189
70.000000 93.000000 154.000000 148 103 189
70.000000 94.000000 153.000000 148 103 189
70.000000 94.000000 154.000000 148 103 189
70.000000 95.000000 153.000000 148 103 189
70.000000 95.000000 154.000000 148 103 189
70.000000 96.000000 153.000000 148 103 189
70.000000 96.000000 154.000000 148 103 189
70.000000 97.000000 153.000000 148 103 189
70.000000 97.000000 154.000000 148 103 189
70.000000 98.000000 153.000000 148 103 189
70.000000 98.000000 154.000000 148 103 189
70.000000 99.000000 153.000000 148 103 189
70.000000 99.000000 154.000000 148 103 189
70.000000 100.000000 153.000000 148 103 189
70.000000 100.000000 154.000000 148 103 189
70.000000 101.000000 153.000000 148 103 189
70.000000 101.000000 154.000000 148 103 189
70.000000 102.000000 153.000000 148 103 189
70.000000 102.000000 154.000000 148 103 189
70.000000 103.000000 153.000000 148 103 189
70.000000 103.000000 154.000000 148 103 189
70.000000 104.000000 153.000000 148 103 189
70.000000 104.000000 154.000000 148 103 189
70.000000 105.000000 153.000000 148 103 189
70.000000 105.000000 154.000000 148 103 189
70.000000 106.000000 153.000000 148 103 189
70.000000 106.000000 154.000000 148 103 189
70.000000 107.000000 153.000000 148 103 189
70.000000 107.000000 154.000000 148 103 189
70.000000 108.000000 153.000000 148 103 189
70.000000 108.000000 154.000000 148 103 189
70.000000 109.000000 153.000000 148 103 189
70.000000 109.000000 154.000000 148 103 189
70.000000 110.000000 153.000000 148 103 189
70.000000 110.000000 154.000000 148 103 189
70.000000 111.000000 153.000000 148 103 189
70.000000 111.000000 154.000000 148 103 189
70.000000 112.000000 153.000000 148 103 189
70.000000 112.000000 154.000000 148 103 189
70.000000 113.000000 153.000000 148 103 189
70.000000 113.000000 154.000000 148 103 189
70.000000 114.000000 153.000000 148 103 189
70.000000 114.000000 154.000000 148 103 189
70.000000 115.000000 153.000000 148 103 189
70.000000 115.000000 154.000000 148 103 189
70.000000 116.000000 153.000000 148 103 189
70.000000 116.000000 154.000000 148 103 189
70.000000 117.000000 153.000000 148 103 189
70.000000 117.000000 154.000000 148 103 189
70.000000 118.000000 153.000000 148 103 189
70.000000 118.000000 154.000000 148 103 189
70.000000 119.000000 153.000000 148 103 189
70.000000 119.000000 154.000000 148 103 189
70.000000 120.000000 153.000000 148 103 189
70.000000 120.000000 154.000000 148 103 189
70.000000 121.000000 153.000000 148 103 189
70.000000 121.000000 154.000000 148 103 189
70.000000 122.000000 153.000000 148 103 189
70.000000 122.000000 154.000000 148 103 189
70.000000 123.000000 153.000000 148 103 189
70.000000 123.000000 154.000000 148 103 189
70.000000 124.000000 153.000000 148 103 189
70.000000 124.000000 154.000000 148 103 189
70.000000 125.000000 153.000000 148 103 189
70.000000 125.000000 154.000000 148 103 189
70.000000 126.000000 153.000000 148 103 189
70.000000 126.000000 154.000000 148 103 189
70.000000 127.000000 153.000000 148 103 189
70.000000 127.000000 154.000000 148 103 189
70.000000 128.000000 153.000000 148 103 189
70.000000 128.000000 154.000000 148 103 189
70.000000 129.000000 153.000000 148 103 189
70.000000 129.000000 154.000000 148 103 189
70.000000 130.000000 153.000000 148 103 189
70.000000 130.000000 154.000000 148 103 189
70.000000 131.000000 153.000000 148 103 189
70.000000 131.000000 154.000000 148 103 189
70.000000 132.000000 153.000000 148 103 189
70.000000 132.000000 154.000000 148 103 189
70.000000 133.000000 153.000000 148 103 189
70.000000 133.000000 154.000000 148 103 189
70.000000 134.000000 153.000000 148 103 189
70.000000 134.000000 154.000000 148 103 189
70.000000 135.000000 153.000000 148 103 189
70.000000 135.000000 154.000000 148 103 189
70.000000 136.000000 144.000000 152 223 138
70.000000 136.000000 145.000000 152 223 138
70.000000 136.000000 146.000000 152 223 138
70.000000 136.000000 147.000000 152 223 138
70.000000 136.000000 148.000000 152 223 138
70.000000 136.000000 149.000000 152 223 138
70.000000 136.000000 150.000000 152 223 138
70.000000 136.000000 152.000000 152 223 138
70.000000 136.000000 153.000000 148 103 189
70.000000 136.000000 154.000000 148 103 189
70.000000 137.000000 143.000000 152 223 138
70.000000 137.000000 144.000000 152 223 138
70.000000 137.000000 145.000000 152 223 138
70.000000 137.000000 146.000000 152 223 138
70.000000 137.000000 147.000000 152 223 138
70.000000 137.000000 148.000000 152 223 138
70.000000 137.000000 149.000000 152 223 138
70.000000 137.000000 150.000000 152 223 138
70.000000 137.000000 151.000000 152 223 138
70.000000 137.000000 152.000000 152 223 138
70.000000 137.000000 153.000000 152 223 138
70.000000 137.000000 154.000000 148 103 189
70.000000 138.000000 144.000000 152 223 138
70.000000 138.000000 145.000000 152 223 138
70.000000 138.000000 146.000000 152 223 138
70.000000 138.000000 147.000000 152 223 138
70.000000 138.000000 148.000000 152 223 138
70.000000 138.000000 149.000000 152 223 138
70.000000 138.000000 150.000000 152 223 138
70.000000 138.000000 151.000000 152 223 138
70.000000 138.000000 152.000000 152 223 138
70.000000 138.000000 153.000000 152 223 138
70.000000 138.000000 154.000000 148 103 189
70.000000 139.000000 145.000000 152 223 138
70.000000 139.000000 146.000000 152 223 138
70.000000 139.000000 147.000000 152 223 138
70.000000 139.000000 148.000000 152 223 138
70.000000 139.000000 152.000000 152 223 138
70.000000 139.000000 153.000000 152 223 138
70.000000 139.000000 154.000000 148 103 189
70.000000 140.000000 153.000000 152 223 138
70.000000 140.000000 154.000000 148 103 189
70.000000 141.000000 153.000000 152 223 138
70.000000 141.000000 154.000000 148 103 189
70.000000 141.000000 155.000000 152 223 138
70.000000 142.000000 152.000000 152 223 138
70.000000 142.000000 153.000000 152 223 138
70.000000 142.000000 154.000000 148 103 189
70.000000 142.000000 155.000000 152 223 138
70.000000 143.000000 152.000000 152 223 138
70.000000 143.000000 153.000000 152 223 138
70.000000 143.000000 154.000000 148 103 189
70.000000 143.000000 155.000000 152 223 138
70.000000 144.000000 152.000000 152 223 138
70.000000 144.000000 153.000000 152 223 138
70.000000 144.000000 154.000000 148 103 189
70.000000 145.000000 152.000000 152 223 138
70.000000 145.000000 153.000000 152 223 138
70.000000 145.000000 154.000000 148 103 189
70.000000 145.000000 155.000000 152 223 138
70.000000 146.000000 152.000000 152 223 138
70.000000 146.000000 153.000000 152 223 138
70.000000 146.000000 154.000000 148 103 189
70.000000 147.000000 152.000000 152 223 138
70.000000 147.000000 153.000000 152 223 138
70.000000 147.000000 154.000000 148 103 189
70.000000 148.000000 152.000000 152 223 138
70.000000 148.000000 153.000000 152 223 138
70.000000 148.000000 154.000000 148 103 189
70.000000 149.000000 152.000000 152 223 138
70.000000 149.000000 153.000000 152 223 138
70.000000 149.000000 154.000000 148 103 189
70.000000 149.000000 155.000000 152 223 138
70.000000 150.000000 153.000000 152 223 138
70.000000 150.000000 154.000000 148 103 189
70.000000 151.000000 153.000000 148 103 189
70.000000 151.000000 154.000000 148 103 189
70.000000 152.000000 124.000000 196 156 148
70.000000 152.000000 125.000000 196 156 148
70.000000 152.000000 126.000000 196 156 148
70.000000 152.000000 127.000000 196 156 148
70.000000 152.000000 128.000000 196 156 148
70.000000 152.000000 129.000000 196 156 148
70.000000 152.000000 130.000000 196 156 148
70.000000 152.000000 131.000000 196 156 148
70.000000 152.000000 132.000000 196 156 148
70.000000 152.000000 133.000000 196 156 148
70.000000 152.000000 134.000000 196 156 148
70.000000 152.000000 135.000000 196 156 148
70.000000 152.000000 136.000000 196 156 148
70.000000 152.000000 137.000000 196 156 148
70.000000 152.000000 138.000000 196 156 148
70.000000 152.000000 139.000000 196 156 148
70.000000 152.000000 140.000000 196 156 148
70.000000 152.000000 141.000000 196 156 148
70.000000 152.000000 142.000000 196 156 148
70.000000 152.000000 143.000000 196 156 148
70.000000 152.000000 144.000000 196 156 148
70.000000 152.000000 145.000000 196 156 148
70.000000 152.000000 146.000000 196 156 148
70.000000 152.000000 147.000000 196 156 148
70.000000 152.000000 148.000000 196 156 148
70.000000 152.000000 149.000000 196 156 148
70.000000 152.000000 150.000000 196 156 148
70.000000 152.000000 151.000000 196 156 148
70.000000 152.000000 152.000000 196 156 148
70.000000 152.000000 153.000000 196 156 148
70.000000 152.000000 154.000000 148 103 189
70.000000 153.000000 124.000000 196 156 148
70.000000 153.000000 125.000000 196 156 148
70.000000 153.000000 126.000000 196 156 148
70.000000 153.000000 127.000000 196 156 148
70.000000 153.000000 128.000000 196 156 148
70.000000 153.000000 129.000000 196 156 148
70.000000 153.000000 130.000000 196 156 148
70.000000 153.000000 131.000000 196 156 148
70.000000 153.000000 132.000000 196 156 148
70.000000 153.000000 133.000000 196 156 148
70.000000 153.000000 134.000000 196 156 148
70.000000 153.000000 135.000000 196 156 148
70.000000 153.000000 136.000000 196 156 148
70.000000 153.000000 137.000000 196 156 148
70.000000 153.000000 138.000000 196 156 148
70.000000 153.000000 139.000000 196 156 148
70.000000 153.000000 140.000000 196 156 148
70.000000 153.000000 141.000000 196 156 148
70.000000 153.000000 142.000000 196 156 148
70.000000 153.000000 143.000000 196 156 148
70.000000 153.000000 144.000000 196 156 148
70.000000 153.000000 145.000000 196 156 148
70.000000 153.000000 146.000000 196 156 148
70.000000 153.000000 147.000000 196 156 148
70.000000 153.000000 148.000000 196 156 148
70.000000 153.000000 149.000000 196 156 148
70.000000 153.000000 150.000000 196 156 148
70.000000 153.000000 151.000000 196 156 148
70.000000 153.000000 152.000000 196 156 148
70.000000 153.000000 153.000000 196 156 148
70.000000 153.000000 154.000000 148 103 189
70.000000 153.000000 155.000000 152 223 138
71.000000 70.000000 153.000000 148 103 189
71.000000 71.000000 152.000000 148 103 189
71.000000 71.000000 153.000000 148 103 189
71.000000 72.000000 152.000000 148 103 189
71.000000 72.000000 153.000000 148 103 189
71.000000 73.000000 152.000000 148 103 189
71.000000 73.000000 153.000000 148 103 189
71.000000 74.000000 152.000000 148 103 189
71.000000 74.000000 153.000000 148 103 189
71.000000 75.000000 152.000000 148 103 189
71.000000 75.000000 153.000000 148 103 189
71.000000 76.000000 152.000000 148 103 189
71.000000 76.000000 153.000000 148 103 189
71.000000 77.000000 152.000000 148 103 189
71.000000 77.000000 153.000000 148 103 189
71.000000 78.000000 152.000000 148 103 189
71.000000 78.000000 153.000000 148 103 189
71.000000 79.000000 152.000000 148 103 189
71.000000 79.000000 153.000000 148 103 189
71.000000 80.000000 152.000000 148 103 189
71.000000 80.000000 153.000000 148 103 189
71.000000 81.000000 152.000000 148 103 189
71.000000 81.000000 153.000000 148 103 189
71.000000 82.000000 152.000000 148 103 189
71.000000 82.000000 153.000000 148 103 189
71.000000 83.000000 152.000000 148 103 189
71.000000 83.000000 153.000000 148 103 189
71.000000 84.000000 152.000000 148 103 189
71.000000 84.000000 153.000000 148 103 189
71.000000 85.000000 152.000000 148 103 189
71.000000 85.000000 153.000000 148 103 189
71.000000 86.000000 152.000000 148 103 189
71.000000 86.000000 153.000000 148 103 189
71.000000 87.000000 152.000000 148 103 189
71.000000 87.000000 153.000000 148 103 189
71.000000 88.000000 152.000000 148 103 189
71.000000 88.000000 153.000000 148 103 189
71.000000 89.000000 152.000000 148 103 189
71.000000 89.000000 153.000000 148 103 189
71.000000 90.000000 152.000000 148 103 189
71.000000 90.000000 153.000000 148 103 189
71.000000 91.000000 152.000000 148 103 189
71.000000 91.000000 153.000000 148 103 189
71.000000 92.000000 152.000000 148 103 189
71.000000 92.000000 153.000000 148 103 189
71.000000 93.000000 152.000000 148 103 189
71.000000 93.000000 153.000000 148 103 189
71.000000 94.000000 152.000000 148 103 189
71.000000 94.000000 153.000000 148 103 189
71.000000 94.000000 154.000000 148 103 189
71.000000 95.000000 152.000000 148 103 189
71.000000 95.000000 153.000000 148 103 189
71.000000 95.000000 154.000000 148 103 189
71.000000 96.000000 152.000000 148 103 189
71.000000 96.000000 153.000000 148 103 189
71.000000 96.000000 154.000000 148 103 189
71.000000 97.000000 152.000000 148 103 189
71.000000 97.000000 153.000000 148 103 189
71.000000 97.000000 154.000000 148 103 189
71.000000 98.000000 152.000000 148 103 189
71.000000 98.000000 153.000000 148 103 189
71.000000 98.000000 154.000000 148 103 189
71.000000 99.000000 152.000000 148 103 189
71.000000 99.000000 153.000000 148 103 189
71.000000 99.000000 154.000000 148 103 189
71.000000 100.000000 152.000000 148 103 189
71.000000 100.000000 153.000000 148 103 189
71.000000 100.000000 154.000000 148 103 189
71.000000 101.000000 152.000000 148 103 189
71.000000 101.000000 153.000000 148 103 189
71.000000 101.000000 154.000000 148 103 189
71.000000 102.000000 152.000000 148 103 189
71.000000 102.000000 153.000000 148 103 189
71.000000 102.000000 154.000000 148 103 189
71.000000 103.000000 152.000000 148 103 189
71.000000 103.000000 153.000000 148 103 189
71.000000 103.000000 154.000000 148 103 189
71.000000 104.000000 152.000000 148 103 189
71.000000 104.000000 153.000000 148 103 189
71.000000 104.000000 154.000000 148 103 189
71.000000 105.000000 152.000000 148 103 189
71.000000 105.000000 153.000000 148 103 189
71.000000 105.000000 154.000000 148 103 189
71.000000 106.000000 152.000000 148 103 189
71.000000 106.000000 153.000000 148 103 189
71.000000 106.000000 154.000000 148 103 189
71.000000 107.000000 152.000000 148 103 189
71.000000 107.000000 153.000000 148 103 189
71.000000 107.000000 154.000000 148 103 189
71.000000 108.000000 152.000000 148 103 189
71.000000 108.000000 153.000000 148 103 189
71.000000 108.000000 154.000000 148 103 189
71.000000 109.000000 152.000000 148 103 189
71.000000 109.000000 153.000000 148 103 189
71.000000 109.000000 154.000000 148 103 189
71.000000 110.000000 152.000000 148 103 189
71.000000 110.000000 153.000000 148 103 189
71.000000 110.000000 154.000000 148 103 189
71.000000 111.000000 152.000000 148 103 189
71.000000 111.000000 153.000000 148 103 189
71.000000 111.000000 154.000000 148 103 189
71.000000 112.000000 152.000000 148 103 189
71.000000 112.000000 153.000000 148 103 189
71.000000 112.000000 154.000000 148 103 189
71.000000 113.000000 152.000000 148 103 189
71.000000 113.000000 153.000000 148 103 189
71.000000 113.000000 154.000000 148 103 189
71.000000 114.000000 152.000000 148 103 189
71.000000 114.000000 153.000000 148 103 189
71.000000 114.000000 154.000000 148 103 189
71.000000 115.000000 152.000000 148 103 189
71.000000 115.000000 153.000000 148 103 189
71.000000 115.000000 154.000000 148 103 189
71.000000 116.000000 152.000000 148 103 189
71.000000 116.000000 153.000000 148 103 189
71.000000 116.000000 154.000000 148 103 189
71.000000 117.000000 152.000000 148 103 189
71.000000 117.000000 153.000000 148 103 189
71.000000 117.000000 154.000000 148 103 189
71.000000 118.000000 152.000000 148 103 189
71.000000 118.000000 153.000000 148 103 189
71.000000 118.000000 154.000000 148 103 189
71.000000 119.000000 152.000000 148 103 189
71.000000 119.000000 153.000000 148 103 189
71.000000 119.000000 154.000000 148 103 189
71.000000 120.000000 152.000000 148 103 189
71.000000 120.000000 153.000000 148 103 189
71.000000 120.000000 154.000000 148 103 189
71.000000 121.000000 152.000000 148 103 189
71.000000 121.000000 153.000000 148 103 189
71.000000 121.000000 154.000000 148 103 189
71.000000 122.000000 152.000000 148 103 189
71.000000 122.000000 153.000000 148 103 189
71.000000 122.000000 154.000000 148 103 189
71.000000 123.000000 152.000000 148 103 189
71.000000 123.000000 153.000000 148 103 189
71.000000 123.000000 154.000000 148 103 189
71.000000 124.000000 152.000000 148 103 189
71.000000 124.000000 153.000000 148 103 189
71.000000 124.000000 154.000000 148 103 189
71.000000 125.000000 152.000000 148 103 189
71.000000 125.000000 153.000000 148 103 189
71.000000 125.000000 154.000000 148 103 189
71.000000 126.000000 152.000000 148 103 189
71.000000 126.000000 153.000000 148 103 189
71.000000 126.000000 154.000000 148 103 189
71.000000 127.000000 152.000000 148 103 189
71.000000 127.000000 153.000000 148 103 189
71.000000 127.000000 154.000000 148 103 189
71.000000 128.000000 152.000000 148 103 189
71.000000 128.000000 153.000000 148 103 189
71.000000 128.000000 154.000000 148 103 189
71.000000 129.000000 152.000000 148 103 189
71.000000 129.000000 153.000000 148 103 189
71.000000 129.000000 154.000000 148 103 189
71.000000 130.000000 152.000000 148 103 189
71.000000 130.000000 153.000000 148 103 189
71.000000 130.000000 154.000000 148 103 189
71.000000 131.000000 152.000000 148 103 189
71.000000 131.000000 153.000000 148 103 189
71.000000 131.000000 154.000000 148 103 189
71.000000 132.000000 152.000000 148 103 189
71.000000 132.000000 153.000000 148 103 189
71.000000 132.000000 154.000000 148 103 189
71.000000 133.000000 152.000000 148 103 189
71.000000 133.000000 153.000000 148 103 189
71.000000 133.000000 154.000000 148 103 189
71.000000 134.000000 152.000000 148 103 189
71.000000 134.000000 153.000000 148 103 189
71.000000 134.000000 154.000000 148 103 189
71.000000 135.000000 152.000000 148 103 189
71.000000 135.000000 153.000000 148 103 189
71.000000 135.000000 154.000000 148 103 189
71.000000 136.000000 143.000000 152 223 138
71.000000 136.000000 144.000000 152 223 138
71.000000 136.000000 145.000000 152 223 138
71.000000 136.000000 146.000000 152 223 138
71.000000 136.000000 147.000000 152 223 138
71.000000 136.000000 148.000000 152 223 138
71.000000 136.000000 149.000000 152 223 138
71.000000 136.000000 151.000000 152 223 138
71.000000 136.000000 152.000000 152 223 138
71.000000 136.000000 153.000000 148 103 189
71.000000 136.000000 154.000000 148 103 189
71.000000 137.000000 125.000000 152 223 138
71.000000 137.000000 142.000000 152 223 138
71.000000 137.000000 143.000000 152 223 138
71.000000 137.000000 144.000000 152 223 138
71.000000 137.000000 145.000000 152 223 138
71.000000 137.000000 146.000000 152 223 138
71.000000 137.000000 147.000000 152 223 138
71.000000 137.000000 148.000000 152 223 138
71.000000 137.000000 149.000000 152 223 138
71.000000 137.000000 150.000000 152 223 138
71.000000 137.000000 151.000000 152 223 138
71.000000 137.000000 152.000000 152 223 138
71.000000 137.000000 153.000000 148 103 189
71.000000 137.000000 154.000000 148 103 189
71.000000 138.000000 143.000000 152 223 138
71.000000 138.000000 144.000000 152 223 138
71.000000 138.000000 145.000000 152 223 138
71.000000 138.000000 146.000000 152 223 138
71.000000 138.000000 147.000000 152 223 138
71.000000 138.000000 148.000000 152 223 138
71.000000 138.000000 149.000000 152 223 138
71.000000 138.000000 150.000000 152 223 138
71.000000 138.000000 151.000000 152 223 138
71.000000 138.000000 152.000000 152 223 138
71.000000 138.000000 153.000000 148 103 189
71.000000 138.000000 154.000000 148 103 189
71.000000 139.000000 145.000000 152 223 138
71.000000 139.000000 146.000000 152 223 138
71.000000 139.000000 147.000000 152 223 138
71.000000 139.000000 151.000000 152 223 138
71.000000 139.000000 152.000000 152 223 138
71.000000 139.000000 153.000000 148 103 189
71.000000 139.000000 154.000000 148 103 189
71.000000 140.000000 152.000000 152 223 138
71.000000 140.000000 153.000000 148 103 189
71.000000 140.000000 154.000000 148 103 189
71.000000 141.000000 152.000000 152 223 138
71.000000 141.000000 153.000000 148 103 189
71.000000 141.000000 154.000000 148 103 189
71.000000 142.000000 152.000000 152 223 138
71.000000 142.000000 153.000000 152 223 138
71.000000 142.000000 154.000000 148 103 189
71.000000 143.000000 152.000000 152 223 138
71.000000 143.000000 153.000000 148 103 189
71.000000 143.000000 154.000000 148 103 189
71.000000 144.000000 152.000000 152 223 138
71.000000 144.000000 153.000000 148 103 189
71.000000 144.000000 154.000000 148 103 189
71.000000 145.000000 152.000000 152 223 138
71.000000 145.000000 153.000000 148 103 189
71.000000 145.000000 154.000000 148 103 189
71.000000 146.000000 152.000000 152 223 138
71.000000 146.000000 153.000000 148 103 189
71.000000 146.000000 154.000000 148 103 189
71.000000 147.000000 152.000000 152 223 138
71.000000 147.000000 153.000000 148 103 189
71.000000 147.000000 154.000000 148 103 189
71.000000 148.000000 152.000000 152 223 138
71.000000 148.000000 153.000000 148 103 189
71.000000 148.000000 154.000000 148 103 189
71.000000 149.000000 152.000000 152 223 138
71.000000 149.000000 153.000000 148 103 189
71.000000 149.000000 154.000000 148 103 189
71.000000 150.000000 152.000000 152 223 138
71.000000 150.000000 153.000000 148 103 189
71.000000 150.000000 154.000000 148 103 189
71.000000 151.000000 152.000000 152 223 138
71.000000 151.000000 153.000000 148 103 189
71.000000 151.000000 154.000000 148 103 189
71.000000 152.000000 124.000000 196 156 148
71.000000 152.000000 125.000000 196 156 148
71.000000 152.000000 126.000000 196 156 148
71.000000 152.000000 127.000000 196 156 148
71.000000 152.000000 128.000000 196 156 148
71.000000 152.000000 129.000000 196 156 148
71.000000 152.000000 130.000000 196 156 148
71.000000 152.000000 131.000000 196 156 148
71.000000 152.000000 132.000000 196 156 148
71.000000 152.000000 133.000000 196 156 148
71.000000 152.000000 134.000000 196 156 148
71.000000 152.000000 135.000000 196 156 148
71.000000 152.000000 136.000000 196 156 148
71.000000 152.000000 137.000000 196 156 148
71.000000 152.000000 138.000000 196 156 148
71.000000 152.000000 139.000000 196 156 148
71.000000 152.000000 140.000000 196 156 148
71.000000 152.000000 141.000000 196 156 148
71.000000 152.000000 142.000000 196 156 148
71.000000 152.000000 143.000000 196 156 148
71.000000 152.000000 144.000000 196 156 148
71.000000 152.000000 145.000000 196 156 148
71.000000 152.000000 146.000000 196 156 148
71.000000 152.000000 147.000000 196 156 148
71.000000 152.000000 148.000000 196 156 148
71.000000 152.000000 149.000000 196 156 148
71.000000 152.000000 150.000000 196 156 148
71.000000 152.000000 151.000000 196 156 148
71.000000 152.000000 152.000000 196 156 148
71.000000 152.000000 153.000000 148 103 189
71.000000 152.000000 154.000000 148 103 189
71.000000 153.000000 124.000000 196 156 148
71.000000 153.000000 125.000000 196 156 148
71.000000 153.000000 126.000000 196 156 148
71.000000 153.000000 127.000000 196 156 148
71.000000 153.000000 128.000000 196 156 148
71.000000 153.000000 129.000000 196 156 148
71.000000 153.000000 130.000000 196 156 148
71.000000 153.000000 131.000000 196 156 148
71.000000 153.000000 132.000000 196 156 148
71.000000 153.000000 133.000000 196 156 148
71.000000 153.000000 134.000000 196 156 148
71.000000 153.000000 135.000000 196 156 148
71.000000 153.000000 136.000000 196 156 148
71.000000 153.000000 137.000000 196 156 148
71.000000 153.000000 138.000000 196 156 148
71.000000 153.000000 139.000000 196 156 148
71.000000 153.000000 140.000000 196 156 148
71.000000 153.000000 141.000000 196 156 148
71.000000 153.000000 142.000000 196 156 148
71.000000 153.000000 143.000000 196 156 148
71.000000 153.000000 144.000000 196 156 148
71.000000 153.000000 145.000000 196 156 148
71.000000 153.000000 146.000000 196 156 148
71.000000 153.000000 147.000000 196 156 148
71.000000 153.000000 148.000000 196 156 148
71.000000 153.000000 149.000000 196 156 148
71.000000 153.000000 150.000000 196 156 148
71.000000 153.000000 151.000000 196 156 148
71.000000 153.000000 152.000000 196 156 148
71.000000 153.000000 153.000000 148 103 189
71.000000 153.000000 154.000000 148 103 189
72.000000 71.000000 152.000000 148 103 189
72.000000 71.000000 153.000000 148 103 189
72.000000 72.000000 151.000000 148 103 189
72.000000 72.000000 152.000000 148 103 189
72.000000 72.000000 153.000000 148 103 189
72.000000 73.000000 151.000000 148 103 189
72.000000 73.000000 152.000000 148 103 189
72.000000 73.000000 153.000000 148 103 189
72.000000 74.000000 151.000000 148 103 189
72.000000 74.000000 152.000000 148 103 189
72.000000 74.000000 153.000000 148 103 189
72.000000 75.000000 151.000000 148 103 189
72.000000 75.000000 152.000000 148 103 189
72.000000 75.000000 153.000000 148 103 189
72.000000 76.000000 151.000000 148 103 189
72.000000 76.000000 152.000000 148 103 189
72.000000 76.000000 153.000000 148 103 189
72.000000 77.000000 151.000000 148 103 189
72.000000 77.000000 152.000000 148 103 189
72.000000 77.000000 153.000000 148 103 189
72.000000 78.000000 151.000000 148 103 189
72.000000 78.000000 152.000000 148 103 189
72.000000 78.000000 153.000000 148 103 189
72.000000 79.000000 151.000000 148 103 189
72.000000 79.000000 152.000000 148 103 189
72.000000 79.000000 153.000000 148 103 189
72.000000 80.000000 151.000000 148 103 189
72.000000 80.000000 152.000000 148 103 189
72.000000 80.000000 153.000000 148 103 189
72.000000 81.000000 151.000000 148 103 189
72.000000 81.000000 152.000000 148 103 189
72.000000 81.000000 153.000000 148 103 189
72.000000 82.000000 151.000000 148 103 189
72.000000 82.000000 152.000000 148 103 189
72.000000 82.000000 153.000000 148 103 189
72.000000 83.000000 151.000000 148 103 189
72.000000 83.000000 152.000000 148 103 189
72.000000 83.000000 153.000000 148 103 189
72.000000 84.000000 151.000000 148 103 189
72.000000 84.000000 152.000000 148 103 189
72.000000 84.000000 153.000000 148 103 189
72.000000 85.000000 151.000000 148 103 189
72.000000 85.000000 152.000000 148 103 189
72.000000 85.000000 153.000000 148 103 189
72.000000 86.000000 151.000000 148 103 189
72.000000 86.000000 152.000000 148 103 189
72.000000 86.000000 153.000000 148 103 189
72.000000 87.000000 151.000000 148 103 189
72.000000 87.000000 152.000000 148 103 189
72.000000 87.000000 153.000000 148 103 189
72.000000 88.000000 151.000000 148 103 189
72.000000 88.000000 152.000000 148 103 189
72.000000 88.000000 153.000000 148 103 189
72.000000 89.000000 151.000000 148 103 189
72.000000 89.000000 152.000000 148 103 189
72.000000 89.000000 153.000000 148 103 189
72.000000 90.000000 152.000000 148 103 189
72.000000 90.000000 153.000000 148 103 189
72.000000 91.000000 151.000000 148 103 189
72.000000 91.000000 152.000000 148 103 189
72.000000 91.000000 153.000000 148 103 189
72.000000 92.000000 152.000000 148 103 189
72.000000 92.000000 153.000000 148 103 189
72.000000 93.000000 152.000000 148 103 189
72.000000 93.000000 153.000000 148 103 189
72.000000 94.000000 152.000000 148 103 189
72.000000 94.000000 153.000000 148 103 189
72.000000 95.000000 152.000000 148 103 189
72.000000 95.000000 153.000000 148 103 189
72.000000 96.000000 152.000000 148 103 189
72.000000 96.000000 153.000000 148 103 189
72.000000 97.000000 152.000000 148 103 189
72.000000 97.000000 153.000000 148 103 189
72.000000 98.000000 152.000000 148 103 189
72.000000 98.000000 153.000000 148 103 189
72.000000 99.000000 152.000000 148 103 189
72.000000 99.000000 153.000000 148 103 189
72.000000 100.000000 152.000000 148 103 189
72.000000 100.000000 153.000000 148 103 189
72.000000 101.000000 152.000000 148 103 189
72.000000 101.000000 153.000000 148 103 189
72.000000 102.000000 152.000000 148 103 189
72.000000 102.000000 153.000000 148 103 189
72.000000 103.000000 152.000000 148 103 189
72.000000 103.000000 153.000000 148 103 189
72.000000 104.000000 152.000000 148 103 189
72.000000 104.000000 153.000000 148 103 189
72.000000 105.000000 152.000000 148 103 189
72.000000 105.000000 153.000000 148 103 189
72.000000 106.000000 152.000000 148 103 189
72.000000 106.000000 153.000000 148 103 189
72.000000 107.000000 152.000000 148 103 189
72.000000 107.000000 153.000000 148 103 189
72.000000 108.000000 152.000000 148 103 189
72.000000 108.000000 153.000000 148 103 189
72.000000 109.000000 152.000000 148 103 189
72.000000 109.000000 153.000000 148 103 189
72.000000 110.000000 152.000000 148 103 189
72.000000 110.000000 153.000000 148 103 189
72.000000 111.000000 152.000000 148 103 189
72.000000 111.000000 153.000000 148 103 189
72.000000 112.000000 152.000000 148 103 189
72.000000 112.000000 153.000000 148 103 189
72.000000 113.000000 152.000000 148 103 189
72.000000 113.000000 153.000000 148 103 189
72.000000 114.000000 152.000000 148 103 189
72.000000 114.000000 153.000000 148 103 189
72.000000 115.000000 152.000000 148 103 189
72.000000 115.000000 153.000000 148 103 189
72.000000 116.000000 152.000000 148 103 189
72.000000 116.000000 153.000000 148 103 189
72.000000 117.000000 152.000000 148 103 189
72.000000 117.000000 153.000000 148 103 189
72.000000 118.000000 152.000000 148 103 189
72.000000 118.000000 153.000000 148 103 189
72.000000 119.000000 152.000000 148 103 189
72.000000 119.000000 153.000000 148 103 189
72.000000 120.000000 152.000000 148 103 189
72.000000 120.000000 153.000000 148 103 189
72.000000 121.000000 152.000000 148 103 189
72.000000 121.000000 153.000000 148 103 189
72.000000 122.000000 152.000000 148 103 189
72.000000 122.000000 153.000000 148 103 189
72.000000 123.000000 152.000000 148 103 189
72.000000 123.000000 153.000000 148 103 189
72.000000 124.000000 152.000000 148 103 189
72.000000 124.000000 153.000000 148 103 189
72.000000 125.000000 152.000000 148 103 189
72.000000 125.000000 153.000000 148 103 189
72.000000 126.000000 152.000000 148 103 189
72.000000 126.000000 153.000000 148 103 189
72.000000 127.000000 152.000000 148 103 189
72.000000 127.000000 153.000000 148 103 189
72.000000 128.000000 152.000000 148 103 189
72.000000 128.000000 153.000000 148 103 189
72.000000 129.000000 152.000000 148 103 189
72.000000 129.000000 153.000000 148 103 189
72.000000 130.000000 152.000000 148 103 189
72.000000 130.000000 153.000000 148 103 189
72.000000 131.000000 152.000000 148 103 189
72.000000 131.000000 153.000000 148 103 189
72.000000 132.000000 152.000000 148 103 189
72.000000 132.000000 153.000000 148 103 189
72.000000 133.000000 152.000000 148 103 189
72.000000 133.000000 153.000000 148 103 189
72.000000 134.000000 152.000000 148 103 189
72.000000 134.000000 153.000000 148 103 189
72.000000 135.000000 152.000000 148 103 189
72.000000 135.000000 153.000000 148 103 189
72.000000 136.000000 118.000000 152 223 138
72.000000 136.000000 143.000000 152 223 138
72.000000 136.000000 144.000000 152 223 138
72.000000 136.000000 145.000000 152 223 138
72.000000 136.000000 146.000000 152 223 138
72.000000 136.000000 147.000000 152 223 138
72.000000 136.000000 148.000000 152 223 138
72.000000 136.000000 151.000000 152 223 138
72.000000 136.000000 152.000000 148 103 189
72.000000 136.000000 153.000000 148 103 189
72.000000 137.000000 120.000000 152 223 138
72.000000 137.000000 123.000000 152 223 138
72.000000 137.000000 124.000000 152 223 138
72.000000 137.000000 125.000000 152 223 138
72.000000 137.000000 126.000000 152 223 138
72.000000 137.000000 139.000000 152 223 138
72.000000 137.000000 140.000000 152 223 138
72.000000 137.000000 141.000000 152 223 138
72.000000 137.000000 142.000000 152 223 138
72.000000 137.000000 143.000000 152 223 138
72.000000 137.000000 144.000000 152 223 138
72.000000 137.000000 145.000000 152 223 138
72.000000 137.000000 146.000000 152 223 138
72.000000 137.000000 147.000000 152 223 138
72.000000 137.000000 148.000000 152 223 138
72.000000 137.000000 149.000000 152 223 138
72.000000 137.000000 150.000000 152 223 138
72.000000 137.000000 151.000000 152 223 138
72.000000 137.000000 152.000000 148 103 189
72.000000 137.000000 153.000000 148 103 189
72.000000 138.000000 142.000000 152 223 138
72.000000 138.000000 143.000000 152 223 138
72.000000 138.000000 144.000000 152 223 138
72.000000 138.000000 145.000000 152 223 138
72.000000 138.000000 146.000000 152 223 138
72.000000 138.000000 147.000000 152 223 138
72.000000 138.000000 148.000000 152 223 138
72.000000 138.000000 149.000000 152 223 138
72.000000 138.000000 150.000000 152 223 138
72.000000 138.000000 151.000000 152 223 138
72.000000 138.000000 152.000000 152 223 138
72.000000 138.000000 153.000000 148 103 189
72.000000 139.000000 145.000000 152 223 138
72.000000 139.000000 151.000000 152 223 138
72.000000 139.000000 152.000000 152 223 138
72.000000 139.000000 153.000000 148 103 189
72.000000 140.000000 151.000000 152 223 138
72.000000 140.000000 152.000000 152 223 138
72.000000 140.000000 153.000000 148 103 189
72.000000 141.000000 151.000000 152 223 138
72.000000 141.000000 152.000000 152 223 138
72.000000 141.000000 153.000000 148 103 189
72.000000 142.000000 151.000000 152 223 138
72.000000 142.000000 152.000000 152 223 138
72.000000 142.000000 153.000000 148 103 189
72.000000 143.000000 139.000000 152 223 138
72.000000 143.000000 141.000000 152 223 138
72.000000 143.000000 151.000000 152 223 138
72.000000 143.000000 152.000000 152 223 138
72.000000 143.000000 153.000000 148 103 189
72.000000 144.000000 151.000000 152 223 138
72.000000 144.000000 152.000000 152 223 138
72.000000 144.000000 153.000000 148 103 189
72.000000 145.000000 151.000000 152 223 138
72.000000 145.000000 152.000000 152 223 138
72.000000 145.000000 153.000000 148 103 189
72.000000 146.000000 151.000000 152 223 138
72.000000 146.000000 152.000000 152 223 138
72.000000 146.000000 153.000000 148 103 189
72.000000 147.000000 151.000000 152 223 138
72.000000 147.000000 152.000000 148 103 189
72.000000 147.000000 153.000000 148 103 189
72.000000 148.000000 151.000000 152 223 138
72.000000 148.000000 152.000000 148 103 189
72.000000 148.000000 153.000000 148 103 189
72.000000 149.000000 151.000000 152 223 138
72.000000 149.000000 152.000000 148 103 189
72.000000 149.000000 153.000000 148 103 189
72.000000 150.000000 151.000000 152 223 138
72.000000 150.000000 152.000000 148 103 189
72.000000 150.000000 153.000000 148 103 189
72.000000 151.000000 152.000000 148 103 189
72.000000 151.000000 153.000000 148 103 189
72.000000 152.000000 118.000000 196 156 148
72.000000 152.000000 120.000000 196 156 148
72.000000 152.000000 122.000000 196 156 148
72.000000 152.000000 123.000000 196 156 148
72.000000 152.000000 124.000000 196 156 148
72.000000 152.000000 125.000000 196 156 148
72.000000 152.000000 126.000000 196 156 148
72.000000 152.000000 127.000000 196 156 148
72.000000 152.000000 128.000000 196 156 148
72.000000 152.000000 129.000000 196 156 148
72.000000 152.000000 130.000000 196 156 148
72.000000 152.000000 131.000000 196 156 148
72.000000 152.000000 132.000000 196 156 148
72.000000 152.000000 133.000000 196 156 148
72.000000 152.000000 134.000000 196 156 148
72.000000 152.000000 135.000000 196 156 148
72.000000 152.000000 136.000000 196 156 148
72.000000 152.000000 137.000000 196 156 148
72.000000 152.000000 138.000000 196 156 148
72.000000 152.000000 139.000000 196 156 148
72.000000 152.000000 140.000000 196 156 148
72.000000 152.000000 141.000000 196 156 148
72.000000 152.000000 142.000000 196 156 148
72.000000 152.000000 143.000000 196 156 148
